# .PCD v0.7 - Point Cloud Data file format
VERSION 0.7
FIELDS x y z intensity
SIZE 4 4 4 4
TYPE F F F F
COUNT 1 1 1 1
WIDTH 52
HEIGHT 1
VIEWPOINT 0 0 0 1 0 0 0
POINTS 52
DATA ascii
-8.316433 -114.25152 -0.43689069 63
-6.6052375 -113.5645 -0.13933319 63
-34.269104 -111.71704 -0.48946333 63
-33.610844 -111.54701 -0.4617548 63
-32.676003 -111.41764 -0.30226153 63
-1.353102 -111.60419 -0.25233459 63
-30.135736 -110.80295 -0.11497531 63
-28.507435 -110.39886 -0.25100398 63
-25.17894 -109.98622 -0.11648892 63
-24.537951 -109.82551 -0.091737017 63
-23.062958 -109.4916 -0.035127625 63
-22.43206 -109.33047 -0.011335835 63
-4.612277 -106.56345 -0.36988476 63
-52.694813 -102.33887 -0.058721609 63
-11.621506 -115.71159 0.40758002 63
-38.443462 -113.91028 0.7344417 100
-6.8652802 -113.4981 0.97881502 63
-3.7833605 -112.6479 0.73758692 63
-1.8581007 -111.69657 0.57892412 63
-0.21317716 -110.96688 0.54197937 63
-22.741997 -109.41446 0.077149056 63
-21.408424 -109.11652 0.027236 63
-10.241081 -106.40258 0.34632412 63
-9.9229183 -106.39426 0.38934189 63
-8.5337801 -106.00644 0.37763205 63
-8.4309931 -105.9587 0.47349358 63
-7.7636604 -105.84875 0.42623082 63
-6.4996748 -105.58535 0.4133729 63
-5.6725183 -105.3185 0.51509684 63
-5.0521846 -104.783 0.57485294 63
-4.4150295 -104.63937 0.54374748 63
-3.9458575 -104.562 0.60781288 63
-2.1842144 -104.11971 0.56857377 63
-1.4476408 -103.90907 0.6041764 63
-0.63819039 -103.72661 0.60298067 63
-20.315472 -119.51389 1.6508716 63
-19.714888 -119.48877 1.3435915 63
-16.295176 -117.58156 1.4937624 63
-15.761589 -117.54476 1.5704175 63
-7.0630522 -113.44798 1.6578654 63
-22.150311 -127.85684 2.6535416 0
-21.732424 -114.48149 2.2792025 63
-2.1561294 -104.05277 4.1127019 63
-1.7904723 -103.96072 4.1145678 63
-4.3724556 -104.51597 7.9098763 63
-2.0104496 -104.01063 7.7536001 63
-2.1816382 -103.98889 7.9311199 63
-2.468045 -104.02601 11.408305 63
-1.7342329 -103.84308 11.398162 63
-0.98517942 -103.65523 11.387862 63
-7.7416277 -113.78152 16.072798 63
-0.21368274 -109.13171 23.962938 6
